# .PCD v0.7 - Point Cloud Data file format
VERSION 0.7
FIELDS x y z
SIZE 4 4 4
TYPE F F F
COUNT 1 1 1
WIDTH 1061
HEIGHT 1
VIEWPOINT 0 0 0 1 0 0 0
POINTS 1061
DATA ascii
-3509 -2506 -1012
-3209 -2506 -1012
-2078.3333 -2681.6667 -1100.6666
-1677.1666 -2673 -1106.3334
-1209 -2606 -1112
-743.83331 -2602 -1106.3334
-227.33333 -2597.8333 -1106.3334
289 -2543.5 -1106.3334
738 -2506 -1103.5
-3509 -2006 -1012
-3209 -2106 -1012
-2709 -2106 -1012
-2359 -2106 -1012
941 -2406 -1012
1091 -2406 -1012
2891 -2406 -1012
3291 -2406 -1012
3791 -2406 -1012
4241 -2406 -1012
-3534 -1781 -1012
-3209 -1706 -1012
-4542.3335 -1272.6666 -1012
-4251.8569 -1234.5714 -1012
-3709 -1306 -1012
-3209 -1306 -1012
-2909 -1306 -1012
-4109 -906 -1012
-3759 -906 -1012
-3248.5715 -2703.7144 -664.28571
-2707 -2611.3635 -799.81818
-2197.9092 -2609 -799.81818
-1709 -2606 -812
-1234.3636 -2561.2727 -799.81818
-725.36365 -2558.9092 -799.81818
-216.27272 -2556.6365 -799.81818
292.63635 -2554.2727 -799.81818
801.63635 -2542.9092 -799.81818
1291 -2506 -812
1791 -2506 -812
2291 -2506 -812
2791 -2506 -812
3253.5 -2506 -837
3791 -2506 -912
4291 -2506 -852
4791 -2506 -812
5291 -2506 -812
5791 -2506 -812
6291 -2506 -812
6591 -2506 -812
-3580 -2468 -929
-3342 -2068 -922
-2861 -2268 -917
-2169.8 -2170.8 -910.59998
-1695.2858 -2152.2856 -908.57141
-1204.1666 -2166.3333 -909.16669
-723.85712 -2152.2856 -905
-231.16667 -2099.6667 -906.5
247.28572 -2152.2856 -901.28571
775.71429 -2152.2856 -898.85712
1317.6364 -2244.5454 -902.09088
1769.6666 -2292.8333 -887.58331
2268.6155 -2273.6155 -883.76923
2733.2222 -2205 -877.66669
3291.7 -2228.8 -832.70001
3791.4614 -2267.6924 -803.53845
4313.4614 -2269.3845 -804.84613
4775.7646 -2318.647 -804.05884
5274.6113 -2303.2778 -803.5
5777.8823 -2274.4119 -803.11768
6274.5557 -2272.6667 -802.11108
6800.2271 -2295.7273 -803.13635
7298.8569 -2294.6667 -810
7777.1904 -2278.6191 -805.61902
8271.6816 -2267.8635 -803.59088
8780.7275 -2248.5454 -803.22729
9289.7725 -2220.0908 -802.81818
9721.9443 -2185.4443 -740.38892
-3580 -1668 -921
-2754.1667 -1699.6666 -912.16669
-2237.5 -1699.6666 -910.66669
-1720.8334 -1699.6666 -909.33331
-1204.1666 -1699.6666 -907.83331
-687.5 -1699.6666 -906.5
-209 -1706 -912
245.66667 -1699.6666 -905
762.16669 -1699.6666 -903.66669
1278.8334 -1699.6666 -902.16669
1795.5 -1699.6666 -900.83331
2312.1667 -1699.6666 -899.33331
2791 -1706 -912
3245.5 -1699.6666 -898
3762.1667 -1699.6666 -830
4278.8335 -1699.6666 -811.83331
4795.5 -1699.6666 -810.5
5312.1665 -1699.6666 -809
5791 -1706 -812
6245.5 -1699.6666 -807.66669
6762.1665 -1699.6666 -806.16669
7278.6665 -1699.6666 -804.83331
7795.3335 -1699.6666 -803.33331
8312 -1699.6666 -802
8791 -1706 -812
9245.333 -1699.6666 -800.5
9751 -1683.5385 -707.69232
10147.5 -1671.5 -790.75
-4541 -1268 -930
-3942 -1268 -922
-3342 -1268 -914
-2675.6001 -1298.4 -910.59998
-2197.8333 -1299.6666 -909.5
-1681.1666 -1299.6666 -908
-1209 -1306 -912
-747.83331 -1299.6666 -906.66669
-231.16667 -1299.6666 -905.16669
285.33334 -1299.6666 -903.83331
802 -1299.6666 -902.33331
1318.6666 -1299.6666 -901
1791 -1306 -912
2252 -1299.6666 -899.66669
2768.5 -1299.6666 -898.16669
3285.1667 -1299.6666 -896.83331
3801.8333 -1299.6666 -845.33331
4318.5 -1299.6666 -810.66669
4791 -1306 -812
5251.8335 -1299.6666 -809.16669
5768.5 -1299.6666 -807.83331
6285.1665 -1299.6666 -806.33331
6801.8335 -1299.6666 -805
7318.5 -1299.6666 -803.5
7791 -1306 -812
8251.833 -1299.6666 -802.16669
8768.5 -1299.6666 -800.83331
9285.167 -1299.6666 -799.33331
9717 -1243.1818 -688.09088
-4180 -868 -921
-3544.5 -887 -912.5
-3209 -706 -912
-2733.6365 -720.72729 -911.27271
-2224.5454 -720.72729 -910.54547
-1715.4546 -720.72729 -909.81818
-1206.3636 -720.72729 -909
-697.27271 -720.72729 -908.27271
-209 -706 -912
266.27274 -720.72729 -907.45453
775.27271 -720.72729 -906.72729
1284.3636 -720.72729 -905.90912
1793.4546 -720.72729 -905.18182
2302.5454 -720.72729 -904.36365
2791 -706 -912
3266.1819 -720.72729 -858.18182
3775.2727 -720.72729 -830.09088
4284.3638 -720.72729 -811.18182
4793.4546 -720.72729 -810.45453
5302.5454 -720.72729 -809.63635
5791 -706 -812
6266.1816 -720.72729 -808.90912
6775.2729 -720.72729 -808.09088
7284.2729 -720.72729 -807.36365
7793.3638 -720.72729 -806.54547
8302.4541 -720.72729 -805.81818
8791 -706 -812
9266.0908 -720.72729 -805
9717.625 -734.875 -744.1875
10147.5 -871.5 -788.5
-3537.5 -199.66667 -910.83331
-3231.1667 -166.33333 -911
-2752.4285 -152.28572 -907.57141
-2223.8572 -152.28572 -905.28571
-1695.2858 -152.28572 -902.71429
-1204.1666 -99.666664 -905.16669
-723.85712 -152.28572 -899.28571
-231.16667 -166.33333 -903.83331
247.28572 -152.28572 -895.57141
775.71429 -152.28572 -893.14288
1304.2858 -152.28572 -890.71429
1795.5 -99.666664 -898.16669
2275.7144 -152.28572 -872.71429
2768.5 -166.33333 -813.5
3247 -152.28572 -812.14288
3775.5715 -152.28572 -809.57141
4304.1431 -152.28572 -807.28571
4795.5 -99.666664 -807.66669
5275.5713 -152.28572 -803.57141
5768.5 -166.33333 -806.5
6247 -152.28572 -800
6775.5713 -152.28572 -797.57141
7304 -152.28572 -795.14288
7795.3335 -99.666664 -800.66669
8310.0996 -108.4 -787.70001
8778.7275 -166.18182 -759.63635
9287.8184 -229.81818 -758.90912
9772.1543 -260.53845 -721.9231
10147.5 -146.5 -736.5
-3709 414 -812
-3231.1667 300.16666 -909.5
-2714.5 300.16666 -908.16669
-2197.8333 300.16666 -906.83331
-1681.1666 300.16666 -905.33331
-1209 294 -912
-747.83331 300.16666 -904
-231.16667 300.16666 -902.5
285.33334 300.16666 -901.16669
802 300.16666 -899.66669
1318.6666 300.16666 -898.33331
1791 294 -912
2252 300.16666 -896.83331
2768.5 300.16666 -895.5
3285.1667 300.16666 -827.33331
3801.8333 300.16666 -809.33331
4318.5 300.16666 -808
4791 294 -812
5251.8335 300.16666 -806.5
5768.5 300.16666 -805.16669
6285.1665 300.16666 -803.66669
6801.8335 300.16666 -802.33331
7318.5 300.16666 -800.83331
7791 294 -812
8112.6665 206.33333 -787
-4104.1665 666.83331 -877.5
-3687.5 700.16669 -909.5
-3209 694 -912
-2754.1667 700.16669 -908
-2237.5 700.16669 -906.66669
-1720.8334 700.16669 -905.16669
-1204.1666 700.16669 -903.83331
-687.5 700.16669 -902.33331
-209 694 -912
245.66667 700.16669 -901
762.16669 700.16669 -899.66669
1278.8334 700.16669 -898.16669
1795.5 700.16669 -863.5
2312.1667 700.16669 -812
2791 694 -812
3245.5 700.16669 -810.66669
3762.1667 700.16669 -809.16669
4278.8335 700.16669 -807.83331
4795.5 700.16669 -806.33331
5312.1665 700.16669 -805
5791 694 -812
6245.5 700.16669 -803.5
6762.1665 700.16669 -802.16669
7319.25 761.125 -803.625
7695.3335 716.83331 -799.33331
-4542 1128.25 -910.5
-4209 1264 -912
-3730.1819 1279.1818 -910.72729
-3221.0908 1279.1818 -909.90912
-2712 1279.1818 -909.18182
-2202.9092 1279.1818 -908.36365
-1693.8182 1279.1818 -907.63635
-1209 1294 -912
-730.18182 1279.1818 -906.90912
-221.09091 1279.1818 -906.09088
287.90909 1279.1818 -905.36365
797 1279.1818 -904.54547
1306.0909 1279.1818 -903.81818
1791 1294 -892
2269.7273 1279.1818 -857.54547
2778.7273 1279.1818 -811.36365
3287.8181 1279.1818 -810.54547
3796.9092 1279.1818 -809.81818
4306 1279.1818 -809
4791 1294 -812
5269.6362 1279.1818 -808.27271
5778.7271 1279.1818 -807.54547
6287.8184 1279.1818 -806.72729
6796.9092 1279.1818 -806
7243.1431 1213.5714 -801.28571
-4180 1531 -897
-3580 1531 -889
-2980 1531 -880
-2380 1531 -872
-1780 1531 -863
-1180 1531 -855
-580 1531 -846
19 1531 -838
618 1531 -829
1409.6 1848.8 -854.20001
1793.4546 1906.4546 -848.45453
2245.7778 1880 -810.33331
2768.5 1900.1666 -809.5
3247 1818.8572 -806.28571
3762.1667 1750.1666 -874.5
4278.8335 1750.1666 -889.83331
4795.5 1800.1666 -871.66669
5301.0908 1869.8182 -723.36365
5781.3335 1903.4166 -700.83331
6276.3848 1883.6154 -704.23077
6798.0771 1892 -701.15387
7154 1562.5 -774.5
2396.3999 2241.3999 -808.79999
2848.1428 2336.8572 -812
3018 2331 -788
7009 2001 -536
2768.5 2700.1667 -808.16669
3157.25 2678.25 -804
-3252.8572 -2705 -321.57144
-2710.1667 -2700.5 -306.5
-2193.6667 -2696.3333 -306.5
-1677.1666 -2675.3333 -306.5
-1209 -2606 -312
-743.83331 -2604.5 -306.5
-227.33333 -2600.1667 -306.5
289 -2596 -306.5
805.66669 -2558.3333 -306.5
1291 -2506 -312
1791 -2506 -312
2291 -2506 -312
2791 -2506 -312
3141 -2506 -312
1478 -2495 -279
2077 -2469 -279
2677 -2444 -279
3362.25 -2409 -303.75
3805 -2403.8333 -306.5
4321.6665 -2399.5 -306.5
4791 -2406 -312
5254.8335 -2395.3333 -306.5
5771.5 -2324.3333 -306.5
6288 -2303.3333 -306.5
6804.5 -2299.1667 -306.5
7321.1665 -2294.8333 -306.5
7791 -2306 -312
8254.333 -2207.3333 -306.5
8770.833 -2203 -306.5
9287.5 -2198.8333 -306.5
9734.1543 -2177.3845 -188
9699.5 -1688.8334 -198.83333
9694.333 -1172.3334 -198.83333
9591 -706 -212
9613.25 -405.75 -267.25
5378.2002 1906.4 -136.8
5791 1894 -212
6247 1906.8334 -199.33333
6796.1431 1978.7142 -229.71428
7124.3335 1994 -245.33333
7227 2003 -136
-3245.6924 -2713.6155 290.46155
-2707 -2703.5454 272.72726
-2197.9092 -2701.2727 272.72726
-1709 -2706 288
-1234.3636 -2653.4546 272.72726
-725.36365 -2605.7273 272.72726
-216.27272 -2603.3635 272.72726
292.63635 -2601.0908 272.72726
801.63635 -2589.6365 272.72726
1291 -2546 288
1765.2727 -2505.5454 272.72726
2291 -2506 288
2791 -2506 288
3253.5 -2506 338
3691 -2506 488
2107 -2475 120
2706 -2450 120
3396 -2412 98.666664
3842.75 -2405.125 192
4291 -2406 288
4765 -2403 272.72726
5274 -2400.7273 272.72726
5783 -2334.7273 272.72726
6292.0908 -2305.1819 272.72726
6801.0908 -2302.8181 272.72726
7291 -2306 288
7764.6362 -2300.4546 272.72726
8273.7275 -2216.3635 272.72726
8782.7275 -2204.9092 272.72726
9291.7275 -2202.6365 272.72726
9726.2861 -2190.4285 217.21428
9700 -1697 200.83333
9678.167 -1180.5 200.83333
9591 -706 188
8791 -186 488
9291 -306 488
9712.333 -355.66666 429.88889
10141 -156 488
7991 494 488
8291 234 468
7841 644 488
9491 1494 488
5310.8335 1902.6666 183.83333
5794.1665 1905.3334 200.5
6310.6665 1907.8334 200.5
6866 1931.5 263
7009 1993 263
9416 1719 438
-3235.2856 -2737.7144 854.14288
-2706.8572 -2701.7144 839.85712
-2178.4285 -2694.4285 839.85712
-1677.1666 -2694.5 826.66669
-1255.5 -2695.5 893.16669
-764.57141 -2622.5715 839.85712
-236.14285 -2601.1428 839.85712
291.85715 -2593.7144 839.85712
820.28571 -2586.5715 839.85712
1322.1666 -2589.8333 826.66669
1743.8334 -2507.5 893.16669
2291 -2506 888
2791 -2506 888
3291 -2506 888
3741 -2506 888
2092 -2487 719.5
2691.5 -2461 719.5
3291 -2436 719.5
3923.6667 -2408.6667 775.66669
4321.6665 -2402 826.66669
4743.3335 -2403 893.16669
5233.2856 -2392.5715 839.85712
5761.7144 -2385.4285 839.85712
6290.1431 -2349.4285 839.85712
6818.4287 -2299.4285 839.85712
7321.1665 -2297.3333 826.66669
7742.6665 -2298.3333 893.16669
8232.4287 -2284.7144 839.85712
8760.7139 -2234.5715 839.85712
9289.1426 -2198.5715 839.85712
9739.4502 -2175.75 790
9695.7275 -1696.6364 776.81818
9683.8184 -1187.6364 776.81818
9591 -706 788
9690 -369.54544 685.90912
10145.546 -69.63636 769.81818
7441 944 588
7641 744 588
7391 1294 588
9491 1494 988
9591 1394 788
5354.6001 1899.4 815.5
5791 1894 788
6267 1900.2727 776.63635
6843.25 1955.5625 780.1875
7295.5 1869.125 597.375
8931 1914 868
9391 1894 849.11108
9678.6367 1993.7273 867.72729
9626 2057 663
-4009 -2806 1288
-3727.7273 -2801.2727 1263.5454
-3226.8333 -2726.3333 1293.1666
-2710.1667 -2705.5 1293.1666
-2193.6667 -2701.1667 1293.1666
-1677.1666 -2697 1293.1666
-1209 -2706 1288
-743.83331 -2609.3333 1293.1666
-227.33333 -2605.1667 1293.1666
289 -2600.8333 1293.1666
805.66669 -2596.5 1293.1666
1322.1666 -2575.6667 1293.1666
1791 -2506 1288
2291 -2506 1288
2791 -2506 1288
3291 -2506 1288
3691 -2506 1288
2077 -2498 1319
2677 -2473 1319
3276 -2447 1319
3919 -2411.3333 1298.3334
4321.6665 -2404.3333 1293.1666
4791 -2406 1288
5254.8335 -2400.1667 1293.1666
5771.5 -2395.8333 1293.1666
6288 -2341.6667 1293.1666
6804.5 -2304 1293.1666
7321.1665 -2299.8333 1293.1666
7791 -2306 1288
8254.333 -2295.5 1293.1666
8770.833 -2224.6667 1293.1666
9287.5 -2203.6667 1293.1666
9736.667 -2181.25 1353.1666
9706.2861 -1683.5714 1352.4286
9697.2861 -1155.2858 1352.4286
9591 -706 1388
9672.2939 -379.29413 1320.4117
10091 -106 1288
9607.667 1410.6666 1321.3334
5362 1912 1357.8
5794.1665 1904 1333.8334
6270.1431 1913.4286 1352.1428
6905.75 1961.3125 1330.125
7200 1958 1362.8334
8900.0908 1948.5454 1297.0909
9424.333 1867.3334 1328
9639.3633 1861.7273 1256.2727
8891 2094 1488
9217 2040 1262.5
9626 2049 1462
10008 2063 1063
-3268.625 -2797 1766.75
-2705.3333 -2756.5 1693
-2188.6667 -2702.1667 1693
-1709 -2706 1688
-1255.5 -2698 1693
-739 -2693.6667 1693
-222.33333 -2639.5 1693
294 -2601.8333 1693
810.5 -2597.5 1693
1291 -2606 1688
1743.8334 -2510 1693
2260.3333 -2505.6667 1693
2791 -2506 1688
3291 -2506 1688
3741 -2506 1688
2706 -2479 1718
3306 -2453 1718
3948 -2417 1703
4291 -2406 1688
4743.3335 -2405.3333 1693
5259.8335 -2401.1667 1693
5776.3335 -2396.8333 1693
6293 -2359.3333 1693
6809.5 -2305 1693
7291 -2306 1688
7742.6665 -2300.8333 1693
8259.333 -2296.5 1693
8775.833 -2242.3333 1693
9292.333 -2204.6667 1693
9736.7695 -2191.5386 1719.1538
9700.167 -1697 1800.5
9678.333 -1180.5 1800.5
9591 -706 1788
9854 -328.45456 1776.6364
10091 -77.428574 1830.8572
10091 294 1988
10091 779.71429 1988
9491 1494 1788
9819 1266 1744
10091 1119 1838
5308 1899.1428 1755.7142
5794.1665 1902.6666 1800.3334
6310.6665 1905.1666 1800.3334
6932.1763 1964.5883 1805.6471
7200 1985.5 1725
8841 1986.8572 1809.4286
9400.0908 1884.9091 1815.2727
9774.5 1987.5 1834.875
7391 2094 1838
8864.8574 2084 1798.5714
9408 2039 1862
10008 2055 1862
-3199.7 -2799.7 2251
-2709.6365 -2752.4546 2272.5454
-2200.6365 -2704.7273 2272.5454
-1691.6364 -2702.3635 2272.5454
-1209 -2706 2288
-728 -2700.0908 2272.5454
-219 -2634.0908 2272.5454
289.90909 -2604.5454 2272.5454
799 -2602.1819 2272.5454
1308 -2599.9092 2272.5454
1791 -2606 2288
2271.5454 -2515.7273 2272.5454
2791 -2506 2288
3291 -2506 2288
3791 -2506 2288
4268.7778 -2506 2310.2222
2677 -2487 2118
3276 -2462 2118
3875 -2436 2118
4483 -2408.5 2103
4791 -2406 2288
5271.2729 -2404.0908 2272.5454
5780.3638 -2401.8181 2272.5454
6289.3638 -2399.4546 2272.5454
6798.3638 -2369.9092 2272.5454
7307.4546 -2303.9092 2272.5454
7791 -2306 2288
8271 -2301.6365 2272.5454
8780 -2299.2727 2272.5454
9289.0908 -2251.5454 2272.5454
9733.333 -2187.7778 2288.2222
9699.833 -1688.8334 2200.3333
9694.667 -1172.3334 2200.3333
9591 -706 2188
9772.667 -322.5 2200.3333
10091 -56 2188
10091 294 2188
9991 994 2121.3333
10091 744 2188
9491 1494 2188
9741 1244 2188
4796.2856 1897.1428 2284.2856
5313.6665 1900.3334 2200.3333
5791 1894 2188
6247 1902.8334 2200.3333
6900.0669 1958.6 2192.9333
7164.6001 1972.5 2345.3999
8714.0771 1994 2326.4614
9391 1884 2178
9612.667 1993 2179.3333
7391 2094 2325.5
8781.9092 2094 2260.7273
9026 2025 2262
9626 2041 2262
-3230.8462 -2751.6924 2815.5386
-2783.5833 -2717.3333 2902.0833
-2183.125 -2693 2922.875
-1647.625 -2665.375 2916.625
-1293.875 -2714.25 2866.625
-764.57141 -2690.2856 2839.1428
-236.14285 -2625.8572 2839.1428
291.85715 -2604.2856 2839.1428
820.28571 -2597 2839.1428
1322.1666 -2597.1667 2892.8333
1743.8334 -2595.8333 2826.1667
2234.1428 -2511 2839.1428
2772 -2505.3333 2892.8333
3291 -2506 2888
3791 -2506 2888
4241 -2506 2888
-3276.5 -2222.1667 2902.3333
-2718.5454 -2205.5454 2989
-2109 -2206 2988
-1709 -2206 2988
2706 -2493 2517
3291 -2472.5 2717
3890 -2446.5 2717
4483 -2415.5 2902.5
4743.3335 -2407.8333 2826.1667
5233.2856 -2403 2839.1428
5761.7144 -2395.7144 2839.1428
6290.1431 -2388.4285 2839.1428
6818.4287 -2352.5715 2839.1428
7321.1665 -2304.6667 2892.8333
7742.6665 -2303.1667 2826.1667
8232.4287 -2295.1428 2839.1428
8760.7139 -2287.8572 2839.1428
9289.1426 -2237.7144 2839.1428
9715.8662 -2173.7334 2803.4666
-3633.5 -1553 2903
-3242.1667 -1705.8334 2902.3333
-2699.8181 -1696.5454 2989
-2109 -1706 2988
-1709 -1706 2988
9696.0908 -1701.0909 2776.5454
-3659 -1206 2888
-3208 -1189.3334 2902.3333
-2733.25 -1218.125 2989.375
-2196.5 -1168.5 2988
-1649 -1206 2988
9684.1816 -1192.0909 2776.5454
-3653.7273 -732.36365 2893.4546
-3207 -672.83331 2902.3333
-2809 -706 2988
-2209 -706 2988
-1609 -706 2988
9591 -706 2788
-3653.2727 -223.36363 2893.4546
-3209 -206 2888
-2807 -239 2989.8333
-2209 -206 2988
-1609 -206 2988
9491 -206 2828
9606.5 -247.16667 2933.6667
-3661.8181 285.54544 2893.4546
-3206.1667 260.16666 2902.3333
-2806.1667 277.16666 2989.8333
-2209 294 2988
-1609 294 2988
9491 294 2888
9591 294 2988
-4009 844 2888
-3690.5 757.625 2899.875
-3205.1667 776.5 2902.3333
-2805.1667 793.66669 2989.8333
-2209 794 2988
-1609 794 2988
9491 831.5 2925.5
9591 644 2988
-4009 1294 2888
-3670.6667 1294.3334 2893.8333
-3204.3333 1293 2902.3333
-2804.3333 1310.1666 2989.8333
-2209 1294 2988
-1609 1294 2988
9491 1294 2828
-4009 1794 2888
-3609 1794 2888
-3203.3333 1809.5 2902.3333
-2803.3333 1826.6666 2989.8333
-2209 1794 2988
-1609 1794 2988
4804.2222 1895.4445 2729.5557
5283.6362 1896.5454 2776.5454
5792.7271 1898 2776.5454
6301.7271 1899.3636 2776.5454
6791 1894 2788
7253.9229 1953.6154 2786
7791 1934 2988
8291 1994 2988
8813.2227 1994 2810.2222
9395.3477 1894 2796.6956
9575 1968 2825
-4009 2244 2888
-3646 2351 2893
-3246.2856 2350 2900.2856
-2734 2369 2988
-2186.7778 2271.7778 2988
-1694.7142 2351.1428 2988
7452.5386 2109.3845 2718.7693
7791 2114 2768
8291 2194 2688
8622 2082.8572 2598.5715
9408 2031 2662
-3588.5 2595 2918
-2770 2588 2999
-3156.125 -2763.125 3329.125
-2707 -2754.3635 3336.0908
-2183.1667 -2748.25 3312.25
-1709 -2706 3338
-1255.6471 -2711.2354 3249.2942
-747 -2701.5 3340.8999
-222.33333 -2694.3333 3292.8333
294 -2656.6667 3292.8333
810.5 -2602.5 3292.8333
1291 -2606 3288
1743.8334 -2598.1667 3292.8333
2260.3333 -2594 3292.8333
2776.8333 -2539.6667 3292.8333
3291 -2506 3288
3791 -2506 3288
4291 -2506 3288
-2216 -2259.5 3037.5
-1617 -2318 3076
-1293.6666 -2207.5 3090.1667
-732.84613 -2222.8462 3090.9231
-124.25 -2236.5 3107.125
260.57144 -2209.4285 3161.5715
767.22223 -2254.2222 3192.4443
1299.6 -2189.1001 3194.6001
1798.5555 -2237.2222 3255.5557
2338.75 -2249.625 3293.25
2688.1667 -2197 3299.3333
3269.2856 -2244.0715 3325.2856
3877 -2269.2222 3387.1111
4259.4287 -2214.7144 3398
4757.0669 -2319.1333 3356.2666
5302.2104 -2300.7368 3426.3684
5791.6665 -2332.3333 3422.9443
6291.7998 -2322.6001 3409.9333
6778.2856 -2366.4285 3320.7144
7291 -2306 3288
7742.6665 -2305.6667 3292.8333
8259.333 -2301.3333 3292.8333
8775.833 -2297.1667 3292.8333
9292.333 -2259.5 3242.8333
9710.2227 -2188.4443 3293.1111
-2210 -1660.5 3037.5
-1612 -1719 3076
-1292.8334 -1691.1666 3090.1667
-718.45453 -1707.9091 3091.4546
-139 -1698.2858 3109.8572
306.5 -1693.5 3190.5
706.16669 -1711.8334 3194.6667
1281.0909 -1699.9091 3194
1859.5714 -1703.5714 3289.1428
2305.6667 -1714.3334 3295
2705.6667 -1697.1666 3299.3333
3280.6365 -1711.2727 3341.9092
3858.2856 -1708.8572 3397
4305.1665 -1699.6666 3399.6667
4704.8335 -1718 3403.8333
5291 -1706 3488
5891 -1706 3488
6291 -1706 3488
9706.7139 -1683.5714 3351.7144
-2204.5 -1061.5 3037.5
-1606 -1121 3076
-1258.5 -1174.6666 3090.1667
-731.11108 -1230.6666 3092.2222
-197.88889 -1144.6666 3105
307.5 -1177.1666 3173.8333
707.16669 -1195.5 3194.6667
1281.6364 -1190.9091 3194
1861 -1175.2858 3289.1428
2306.5 -1197.8334 3295
2706.6667 -1180.8334 3299.3333
3281.1819 -1202.2727 3341.9092
3859.8572 -1180.5714 3397
4306 -1183.1666 3399.6667
4705.6665 -1201.6666 3403.8333
5291 -1206 3488
5891 -1206 3488
6291 -1206 3488
9683.4287 -1155.2858 3351.7144
-2399 -514 3025
-1601 -522 3076
-1209 -706 3088
-807.83331 -676.5 3094.3333
-217.63637 -690.63635 3096.0908
291 -706 3088
741.33331 -679 3194.6667
1253.5 -743.5 3188
1791.125 -649.125 3261.875
2307.5 -681.5 3295
2691 -706 3288
3281.6365 -693.27271 3341.9092
3907 -683.83331 3395.3333
4291 -706 3388
4706.6665 -685.16669 3403.8333
5291 -706 3488
5891 -706 3488
6291 -706 3488
9591 -706 3388
-1999 -412 3050
-1207.6666 -241.5 3090.1667
-809 -206 3088
-226.54546 -226 3093.8181
291 -206 3088
791 -206 3188
1191.3334 -245.16667 3199
1809.2727 -228.09091 3244.0908
2311 -206 3288
2707.5 -247.66667 3299.3333
3301 -206 3338
3857.1667 -248.83333 3391.1667
4307 -250.16667 3399.6667
4691 -206 3388
5291 -206 3488
5891 -206 3488
6291 -206 3488
9617.4287 -269.71429 3351.7144
-2394 83 3025
-1794 131 3063
-1206.6666 274.83334 3090.1667
-807 256.5 3094.3333
-226.09091 282.81818 3093.8181
242.5 255.16667 3102.8333
792.33331 254 3194.6667
1192.3334 271.16666 3199
1792 261.25 3247
2391.6667 251.5 3295
2791.8333 268.66666 3299.3333
3191.5 250.33333 3303.5
3791.3333 258.16666 3393.25
4391.1665 266.16666 3399.6667
4707.5 247.83333 3403.8333
5341 294 3488
5891 294 3488
6291 294 3488
9608.4287 258.28571 3351.7144
-2388 682 3025
-1789 730 3063
-1205.8334 791.16669 3090.1667
-806 772.83331 3094.3333
-225.54546 791.81818 3093.8181
323.85715 770.42859 3174.2856
793.16669 770.5 3194.6667
1193.1666 787.5 3199
1773.9091 780.45453 3241.7273
2337 765.14288 3296.4285
2792.6667 785.16669 3299.3333
3192.3333 766.66669 3303.5
3792.25 774.66669 3393.25
4392.1665 782.66669 3399.6667
4791.8335 764.33331 3403.8333
5191 794 3488
5781 794 3488
6391 794 3488
9599.4287 786.57141 3351.7144
-2382 1281 3025
-1783 1328.5 3063
-1204.8334 1307.6666 3090.1667
-805.16669 1289.3334 3094.3333
-225.09091 1300.8182 3093.8181
339.85715 1298.5714 3188.5715
794.16669 1286.8334 3194.6667
1194.1666 1304 3199
1774.3636 1289.4546 3241.7273
2338.5715 1293.4286 3296.4285
2793.6667 1301.5 3299.3333
3193.3333 1283.1666 3303.5
3774.0908 1297.4546 3389.7273
4337.2856 1288.1428 3404.2856
4792.8335 1280.6666 3403.8333
5191 1294 3488
5791 1294 3488
6391 1294 3488
9491 1444 3388
9590.4004 1263.4 3337.2
-2377 1880 3025
-1778 1927 3063
-1203.8334 1824.1666 3090.1667
-804.16669 1805.8334 3094.3333
-224.54546 1809.8182 3093.8181
341.28571 1826.7142 3188.5715
795 1803.3334 3194.6667
1195.1666 1820.5 3199
1774.9091 1798.4546 3241.7273
2340.1428 1821.4286 3296.4285
2794.5 1818 3299.3333
3194.1667 1799.6666 3303.5
3774.6365 1806.4546 3389.7273
4339 1816.2858 3404.2856
4808 1831 3306.7778
5287.7856 1854.7142 3412.8572
5807.8462 1804.4615 3447.5386
6279.769 1855.2307 3414.7693
6763.6665 1904.1666 3333.6667
7241.5713 1914.5714 3352
7770 1918.8572 3352
8277.333 1960.3334 3400.3333
8791 1994 3388
9381 1884 3408
9558.5 1966.5 3261
-2371 2478 3025
-1573 2471 3076
-1166.1428 2351.1428 3088
-820 2322.3333 3094.3333
-225.66667 2327.3333 3088
352.71429 2345.7144 3186.4285
752.42859 2344.7144 3193.7144
1266 2369 3188
1793.8 2288.7 3247.1001
2319.375 2361.5 3293.25
2833.8572 2351.1428 3288
3178.5 2316.1667 3303.5
3791 2294 3388
4382.4443 2307.8889 3392.8889
4591 2094 3388
8426 2002 3062
8808 2008 3462
9217 2020 3262
9626 2033 3062
-1971 2581 3050
-1173 2574 3101
-375 2566 3152
423 2559 3203
1221 2552 3254
2019 2544 3305
2818 2537 3356
3883.5 2747.5 3389.8999
4414 2522 3458
4020 3018 3432
-509 -2706 3588
-227.33333 -2695.6667 3692.6667
289 -2641.5 3692.6667
805.66669 -2603.8333 3692.6667
1322.1666 -2599.6667 3692.6667
1791 -2606 3688
2255.3333 -2595.3333 3692.6667
2772 -2524.5 3692.6667
3291 -2506 3688
3791 -2506 3688
4241 -2506 3688
3276 -2491 3716
3875 -2466 3716
4483 -2423 3652
4791 -2406 3588
5130 -2340 3548.5
5767 -2333 3547
6384.5 -2402.5 3612.25
6759.6362 -2298.2727 3647.1819
7283.2632 -2274.3684 3623.5789
7787.1431 -2261.7144 3670
8256.4619 -2235.1538 3676.6924
8828.9004 -2241.5 3690.8
9195 -2258.9167 3696.6667
9734.3076 -2229.1538 3811.0769
5174 -1676 3509
5772 -1734.5 3547
6371 -1793 3585
6704.3335 -1703.3334 3591.8333
7279.9092 -1714.5454 3592.3635
7855.8569 -1719.4286 3612.7144
8303.667 -1705.8334 3692.1667
8703.5 -1724.1666 3696.3333
9258.5 -1686.6 3735.6001
9680.5713 -1708 3798.4285
5180 -1077 3509
5778 -1135.5 3547
6376 -1194 3585
6705.1665 -1187 3591.8333
7280.3638 -1205.6364 3592.3635
7857.5713 -1191.1428 3612.7144
8304.667 -1189.3334 3692.1667
8704.333 -1207.6666 3696.3333
9280.0908 -1197.6364 3740.3635
9676.8574 -1179.7142 3798.4285
5583 -588 3534
6382 -596 3585
6691 -706 3588
7280.9092 -696.63635 3592.3635
7905.5 -690 3604.5
8305.5 -673 3692.1667
8705.333 -691.33331 3696.3333
9280.6367 -688.63635 3740.3635
9588.333 -692.5 3788.1667
5185 -478 3509
5983 -485 3560
6706.1665 -253.83333 3591.8333
7281.4546 -187.63637 3592.3635
7859.8569 -220.28572 3612.7144
8291 -206 3688
8706.167 -174.83333 3696.3333
9291 -206 3738
9602.5713 -208.71428 3798.4285
5191 120 3509
5789 61 3547
6387 2 3585
6707 262.5 3591.8333
7291 294 3588
7840.1665 261.33334 3600.3333
8306.5 260 3692.1667
8691 294 3688
9281.0908 274.81818 3740.3635
9601 277.16666 3800
5196 718 3509
5794.5 659.5 3547
6393 601 3585
6774.6665 779 3591.8333
7233.8569 736.85712 3594.8572
7763.5454 784.36365 3603.7273
8307.5 776.5 3692.1667
8707.167 758.16669 3696.3333
9326.5 807.42859 3750.5715
9597 662.75 3806.25
5202 1317 3509
5600 1207 3534
6199 1255 3572.5
6792.1665 1295.3334 3591.8333
7192 1277 3596
7791.8335 1285 3602.4167
8375 1293 3692.1667
8791.333 1274.6666 3696.3333
9318.4541 1292.7273 3740.3635
9590.8574 1290.2858 3798.4285
5207 1916 3509
5605 1806 3534
6205 1853.5 3572.5
6811.5293 1850.4706 3734.8235
7237.2144 1848.7142 3775.2144
7756.375 1824.25 3672.1875
8328.833 1875.8334 3746.0833
8761.7998 1862.2 3743
9361.4004 1853.25 3726.8
9585.4004 1808.4 3802.6001
9026 2009 3861
9626 2025 3861
6928 -2385.3333 4097.3335
7291 -2406 4088
7742.6665 -2308 4092.6667
8259.333 -2303.8333 4092.6667
8775.833 -2299.5 4092.6667
9292.333 -2295.3333 4092.6667
9736.0908 -2229.1819 4142.5454
9700.5 -1697 4200
9678.667 -1180.5 4200
9591 -706 4188
9606.667 -247.16667 4200
9601.5 269.16666 4200
9596.333 785.66669 4200
9491 1444 4188
9591 1231.25 4206
7491 1894 4088
7760.6665 1906.3334 4200.1665
8277.333 1959 4200.1665
8791 1994 4188
9379.8887 1882.8889 4188
9752.5 1985.3334 4200
8808 2000 4261
9408 2015 4261
10008 2031 4261
